# .PCD v0.7 - Point Cloud Data file format
VERSION 0.7
FIELDS x y z
SIZE 4 4 4
TYPE F F F
COUNT 1 1 1
WIDTH 1494
HEIGHT 1
VIEWPOINT 0 0 0 1 0 0 0
POINTS 1494
DATA ascii
-10.795074 3.6561258 -1.3209695
-11.256181 3.3977897 -1.2941533
-15.410785 3.7573593 -1.165648
-16.191988 3.3354907 -1.1364639
-11.764492 3.0272229 -1.2830815
-12.263478 2.7085726 -1.2593474
-24.520172 10.044542 -0.81085056
-27.060768 9.9356289 -0.71969873
-16.424112 6.9900708 -1.0997227
-17.621151 6.770051 -1.069231
-29.527884 9.6071777 -0.63197654
-33.647503 9.5726767 -0.50460082
-18.828493 6.4095345 -1.0262541
-20.305534 6.1003475 -0.98192555
-37.002472 9.0556717 -0.39103645
-42.894047 8.8479748 -0.19142148
-21.734264 5.6505575 -0.9263503
-23.54558 5.1939807 -0.87267917
-36.075348 15.405126 0.1009313
-53.143616 20.373363 0.39167139
-3.8409457 1.79725 -1.5207683
-4.0197706 1.6350528 -1.5309658
-8.2018833 1.8611374 -1.4006045
-8.7913084 1.5171632 -1.4058566
-4.2165074 1.3793812 -1.5236303
-4.3663292 1.1863041 -1.5129304
-1.4677804 0.50049913 -0.52220899
-1.6128778 0.49627897 -0.56521475
-4.6257997 0.91750205 -1.5243897
-4.7513704 0.70263255 -1.5157205
-1.6340492 0.3420243 -0.5395931
-1.7379544 0.31205469 -0.56469035
-5.4215174 2.5145373 -1.4902412
-5.6307197 2.2664614 -1.4761723
-4.4443498 2.1908317 -1.507061
-4.6767445 2.0172701 -1.5022573
-5.9497571 1.9483103 -1.477222
-6.2331829 1.6967648 -1.4689261
-4.8911595 1.7130439 -1.4936466
-5.1263208 1.5184397 -1.4976387
-6.5333285 1.3270226 -1.4511074
-6.9450312 1.0433868 -1.4569679
-5.3979306 1.2084208 -1.497582
-5.6025352 0.95681292 -1.4873656
-8.6126585 3.9658771 -1.3832239
-8.9845114 3.6007426 -1.3741885
-6.6831384 3.2651241 -1.4568341
-6.8950472 2.9430604 -1.4349132
-9.6058683 3.1693501 -1.3604681
-10.264709 2.8078196 -1.3298427
-7.3669524 2.5959074 -1.4350588
-7.7234693 2.2833061 -1.4107994
-12.286728 5.0876102 -1.2491032
-13.006545 4.9032121 -1.2356895
-13.732444 4.5199676 -1.2156748
-14.405512 4.1782999 -1.1858642
-10.787087 3.7102125 -1.3222998
-11.268509 3.4594762 -1.2979696
-15.385174 3.8280129 -1.1649455
-16.215109 3.4199319 -1.1397097
-11.75777 3.084671 -1.284054
-12.262207 2.7689457 -1.2607399
-24.369246 10.11698 -0.8065213
-27.028639 10.068615 -0.72019821
-16.38184 7.0634403 -1.0989786
-17.598354 6.8566327 -1.0698973
-29.505054 9.7537708 -0.63260955
-33.569359 9.7217035 -0.50388789
-18.792421 6.4962368 -1.0258695
-20.2651 6.1924896 -0.98123872
-36.972977 9.233345 -0.39123636
-43.008438 9.0829754 -0.1928594
-21.755651 5.7657695 -0.92886758
-23.536436 5.3083863 -0.87338436
-35.576618 15.390462 0.1022209
-51.469727 20.011215 0.38623285
-3.8357828 1.8169569 -1.5222377
-4.0154734 1.6553917 -1.5324132
-8.1987638 1.9011308 -1.4016843
-8.787941 1.5592649 -1.4065362
-4.2170439 1.4016504 -1.5264621
-4.3643107 1.2078615 -1.5143119
-1.4654026 0.50742644 -0.5222069
-1.6017089 0.5012874 -0.56126016
-4.6103578 0.93699479 -1.5203573
-4.7648234 0.72750378 -1.5216336
-1.6396062 0.3513914 -0.5426836
-1.7328126 0.31964064 -0.56317008
-5.4218025 2.5458605 -1.4939457
-5.6235585 2.2944288 -1.4772038
-4.4373598 2.2134755 -1.5083294
-4.6794128 2.0445666 -1.5065844
-5.9350066 1.9744861 -1.4757075
-6.219502 1.7246022 -1.4674628
-4.8794451 1.734795 -1.4924307
-5.1264358 1.5447634 -1.4999956
-6.538415 1.36023 -1.4539044
-6.9496737 1.0775746 -1.4591923
-5.3977733 1.2351676 -1.4992938
-5.5979624 0.98321837 -1.4873616
-8.583148 4.0013995 -1.3813082
-8.9674425 3.6430542 -1.3741821
-6.6746755 3.3000853 -1.4585164
-6.8918939 2.980155 -1.4373869
-9.5852013 3.2126949 -1.3595788
-10.247544 2.8551188 -1.3292874
-7.3491058 2.6286106 -1.4338622
-7.7596788 2.3336725 -1.4202883
-12.294513 5.1361933 -1.2519433
-12.976193 4.9384189 -1.2340225
-13.718176 4.5630889 -1.2156684
-14.401874 4.2263222 -1.1867874
-10.779119 3.7453957 -1.3228295
-11.246208 3.4913599 -1.296435
-15.396247 3.8822112 -1.1670184
-16.188688 3.4675407 -1.1384009
-11.751856 3.1226237 -1.2845387
-12.259259 2.8087754 -1.2614347
-22.824543 9.5581913 -0.7432639
-27.011852 10.159083 -0.72070271
-16.35774 7.1140718 -1.0988244
-17.547003 6.9002433 -1.0677216
-29.47617 9.8470392 -0.63265169
-33.538658 9.8271027 -0.50387484
-18.779461 6.5578818 -1.0263586
-20.255091 6.2590547 -0.98179227
-36.932152 9.3464851 -0.39103344
-43.014896 9.2255526 -0.19317244
-21.743217 5.8356438 -0.92916232
-23.519644 5.3822956 -0.87337512
-34.866535 15.212975 0.10420807
-49.393654 19.384008 0.37926364
-3.8317285 1.829818 -1.5229715
-3.9912734 1.6602525 -1.5244292
-8.2023163 1.9291642 -1.4034891
-8.7791185 1.5861808 -1.4058467
-4.2196956 1.4173212 -1.5292944
-4.3623018 1.2220699 -1.5150017
-1.4706684 0.51456493 -0.52543253
-1.5895618 0.50317049 -0.55651528
-4.6110749 0.95226359 -1.5216973
-4.7475686 0.74023134 -1.5163714
-1.6313065 0.35487324 -0.53958917
-1.7153852 0.32226712 -0.55633664
-5.4102979 2.561224 -1.4928826
-5.6234798 2.3150003 -1.4792721
-4.4270029 2.225693 -1.507054
-4.6712198 2.058507 -1.5059626
-5.9306045 1.9937526 -1.4762074
-6.234621 1.7498206 -1.4728081
-4.8829231 1.7533867 -1.4954576
-5.1197257 1.5603206 -1.4994022
-6.5265036 1.3791335 -1.4520333
-6.9385448 1.0982183 -1.4574056
-5.3938646 1.2521263 -1.4992907
-5.5910573 1.0001481 -1.4862496
-8.5741053 4.0300384 -1.38194
-8.9669352 3.675679 -1.3760381
-6.6677675 3.3227997 -1.4593561
-6.8717175 2.9971433 -1.434904
-9.5900373 3.2479088 -1.3619281
-10.240431 2.8878348 -1.3295568
-7.3352861 2.6496756 -1.4326668
-7.7767549 2.3653915 -1.4252214
-12.283808 5.1771235 -1.2525944
-12.964331 4.9805846 -1.2344315
-13.701885 4.6055298 -1.2154654
-14.394253 4.2732406 -1.1873386
-10.793461 3.7884936 -1.3265691
-11.235183 3.5266795 -1.2964298
-15.366606 3.9260974 -1.1654522
-16.189402 3.5209076 -1.1393708
-11.738153 3.1584938 -1.2840433
-12.223271 2.841042 -1.2581624
-21.784138 9.2018585 -0.70096135
-26.987282 10.246722 -0.72094929
-16.331659 7.1638207 -1.0985234
-17.51967 6.9531369 -1.0673072
-29.471601 9.9485626 -0.63339841
-33.521042 9.9363813 -0.50414735
-18.766291 6.6195145 -1.0268476
-20.235327 6.3226585 -0.98178375
-36.916168 9.4659433 -0.39123988
-43.046288 9.3737869 -0.19372286
-21.744045 5.9091835 -0.93016547
-23.518192 5.4597554 -0.87408412
-34.902756 15.359538 0.10397156
-48.796886 19.327244 0.37742111
-3.8309705 1.8443047 -1.5251782
-3.9894819 1.6742134 -1.5258776
-8.1943007 1.9544684 -1.4031233
-8.7682714 1.6127084 -1.4048144
-4.2099171 1.4287474 -1.5271651
-4.3620548 1.2367797 -1.5163841
-1.48105 0.52365357 -0.53107882
-1.593246 0.50976676 -0.55888492
-4.6080575 0.96675396 -1.5216945
-4.7302809 0.75285894 -1.5111094
-1.6337703 0.36085662 -0.54113364
-1.7252964 0.3295829 -0.56088918
-5.4022222 2.5782166 -1.4928792
-5.610815 2.3304653 -1.4777149
-4.413238 2.2361369 -1.5045062
-4.6629858 2.0724182 -1.5053408
-5.9206495 2.0111232 -1.4751973
-6.2309589 1.7699291 -1.4732908
-4.8881202 1.7726771 -1.4990909
-5.1147962 1.5764055 -1.4993991
-6.5126357 1.3975619 -1.449695
-6.9292803 1.1191082 -1.4560645
-5.406672 1.2731035 -1.5044343
-5.5935607 1.0187229 -1.4879097
-8.5524893 4.052711 -1.380344
-8.9516869 3.7023382 -1.3754133
-6.65555 3.3428552 -1.4589303
-6.8568835 3.0163801 -1.4336605
-9.587265 3.2806082 -1.3631006
-10.233213 2.9205368 -1.3298261
-7.3342814 2.6754253 -1.4342513
-7.7580104 2.3863919 -1.4229387
-12.265654 5.2149119 -1.2523693
-12.954188 5.0234399 -1.2350483
-13.696767 4.651773 -1.2164438
-14.390299 4.3212905 -1.1882617
-10.751639 3.8117275 -1.3222841
-11.216478 3.559581 -1.2954046
-15.369622 3.9783762 -1.1668319
-16.160736 3.5679142 -1.1378992
-11.728173 3.1953599 -1.2840379
-12.247169 2.8871119 -1.2621236
-21.687126 9.2411909 -0.69810146
-26.867201 10.29791 -0.71790755
-16.030159 7.0912433 -1.0760732
-17.49218 7.0059261 -1.0668927
-29.45912 10.047565 -0.63392848
-33.510742 10.047936 -0.50458294
-18.74728 6.6791115 -1.0269636
-20.230606 6.3909931 -0.98267472
-36.892056 9.5833769 -0.39132035
-43.038113 9.5136976 -0.19390796
-21.740776 5.9817214 -0.9309662
-23.489252 5.5308766 -0.87353605
-31.091484 13.796164 0.11523204
-44.91317 17.954725 0.36413082
-3.8218195 1.8546975 -1.5237024
-3.98248 1.6860321 -1.5251492
-8.1900301 1.9806768 -1.4034809
-8.7612219 1.6398968 -1.4044676
-4.200109 1.4401258 -1.5250359
-4.3617587 1.2515 -1.5177662
-1.4674002 0.52381593 -0.52542889
-1.602175 0.51800233 -0.56362599
-4.610517 0.98244232 -1.5237061
-4.7204251 0.76655489 -1.5084769
-1.6559418 0.37159523 -0.55118299
-1.7187848 0.33403546 -0.55861014
-5.4010329 2.5985575 -1.4949955
-5.5998945 2.3466122 -1.4766756
-4.4196649 2.2569649 -1.5095924
-4.6668892 2.0916777 -1.50905
-5.9143 2.0297217 -1.4751939
-6.2216325 1.7884471 -1.4723148
-4.8718052 1.7840499 -1.4954516
-5.1079893 1.5919158 -1.4988059
-6.5328932 1.4234989 -1.4557617
-6.9276524 1.1411891 -1.4565067
-5.3840237 1.2855557 -1.4987125
-5.5827665 1.0349332 -1.4856889
-8.5503922 4.0847006 -1.3822488
-8.940011 3.7304494 -1.3754085
-6.650238 3.3664219 -1.460192
-6.8617048 3.0442109 -1.4369619
-9.5675697 3.3074625 -1.3616244
-10.22589 2.9532218 -1.3300956
-7.3221645 2.6970944 -1.4334532
-7.7504735 2.4107599 -1.4229347
-12.246415 5.275034 -1.2530179
-12.932224 5.0851631 -1.2352474
-13.685976 4.7201881 -1.2176163
-14.360246 4.3861718 -1.1873232
-10.744737 3.8664122 -1.3238817
-11.19769 3.6118035 -1.2951423
-15.327592 4.0446296 -1.1647432
-16.161247 3.6479595 -1.1393545
-11.722542 3.2532759 -1.2852556
-12.233425 2.944803 -1.262116
-21.452602 9.2607136 -0.69007617
-26.866838 10.44319 -0.71956748
-15.250722 6.8313046 -1.0159222
-17.483021 7.0980091 -1.068643
-29.426559 10.191525 -0.63434446
-33.472591 10.208648 -0.50476772
-18.70059 6.7619381 -1.0259577
-20.200266 6.4862614 -0.98266244
-36.850353 9.7581415 -0.39136255
-42.834774 9.6807814 -0.1924054
-21.718113 6.0857325 -0.93125683
-23.457096 5.6401143 -0.87325317
-30.900297 13.885866 0.11562818
-43.485775 17.623089 0.35947445
-3.8180277 1.8751893 -1.5259082
-3.9779229 1.7062423 -1.5265967
-8.180603 2.0192614 -1.4034754
-8.7398424 1.6786155 -1.402063
-4.2038503 1.4636655 -1.5292852
-4.3431816 1.268448 -1.5129148
-1.4649125 0.5307408 -0.52542681
-1.6084847 0.52828926 -0.56757629
-4.6095109 1.0049946 -1.5250454
-4.7204871 0.78940749 -1.509788
-1.6416286 0.37633699 -0.54576868
-1.7444881 0.34715664 -0.56999391
-5.3887258 2.6239939 -1.4949909
-5.5887733 2.3729887 -1.4766711
-4.4039378 2.275146 -1.5076802
-4.6396179 2.1058927 -1.5028588
-5.9265709 2.0653133 -1.4812292
-6.2131338 1.8177592 -1.4723102
-4.8686929 1.8090192 -1.4972657
-5.1077261 1.6182547 -1.5011626
-6.5317993 1.4555722 -1.4571579
-6.9125786 1.1722412 -1.454273
-5.3816237 1.3118514 -1.4998521
-5.5759358 1.0608933 -1.4851304
-8.522171 4.1206398 -1.3806515
-8.9041109 3.7649052 -1.3723016
-6.6256137 3.3932517 -1.4580773
-6.8365545 3.0717521 -1.4344777
-9.5537415 3.353183 -1.361912
-10.22137 3.0041578 -1.3314605
-7.2965336 2.7267375 -1.4306676
-7.7577682 2.4531271 -1.4267269
-12.233427 5.3150749 -1.2534497
-12.932838 5.1323385 -1.2371097
-13.691742 4.7704005 -1.2197762
-14.357819 4.4347711 -1.1884321
-10.726954 3.8981092 -1.3230741
-11.203273 3.652462 -1.297431
-15.322509 4.0948334 -1.1654297
-16.171093 3.7035742 -1.1411383
-11.714171 3.2906308 -1.285495
-12.224113 2.983223 -1.2621106
-20.747578 9.0329466 -0.66164136
-26.850655 10.534087 -0.72013634
-14.624275 6.6048636 -0.96706963
-17.425537 7.1385756 -1.0660607
-29.407608 10.288543 -0.6347118
-33.449909 10.31668 -0.50495845
-18.698 6.8275228 -1.0271925
-20.174089 6.5478449 -0.98231655
-36.819519 9.8738461 -0.39134845
-42.739815 9.8005705 -0.191787
-21.704651 6.15557 -0.93155152
-23.450914 5.7165995 -0.87378263
-30.841959 13.976248 0.11568518
-41.630417 17.024847 0.35320419
-3.8087933 1.8855144 -1.5244325
-3.981117 1.7223858 -1.5302219
-8.1799364 2.0464063 -1.4045566
-8.7248478 1.7042094 -1.4003453
-4.1886644 1.4730914 -1.5250294
-4.3571982 1.2873037 -1.5198376
-1.471777 0.5386306 -0.52945936
-1.5787725 0.52453583 -0.55492657
-4.5989795 1.0178111 -1.5223565
-4.7310281 0.806391 -1.5143871
-1.6619166 0.38683823 -0.55504489
-1.7561183 0.35502318 -0.57530558
-5.3752708 2.6383469 -1.4933978
-5.5812893 2.3905418 -1.4766678
-4.4001222 2.290746 -1.5089494
-4.6329775 2.1204665 -1.5028557
-5.8981733 2.0761302 -1.4751859
-6.2148414 1.8394479 -1.4742519
-4.8629842 1.8243135 -1.4972626
-5.1062617 1.6354482 -1.50234
-6.5120311 1.4726031 -1.453419
-6.9030924 1.1929842 -1.4529321
-5.3681812 1.3264183 -1.4969895
-5.5782385 1.0794815 -1.4867905
-8.5020924 4.143919 -1.3793737
-8.8885994 3.7913239 -1.3716768
-6.6253266 3.4194703 -1.4606045
-6.8268704 3.0932209 -1.4344738
-9.548749 3.3851819 -1.3627901
-10.208078 3.0351384 -1.330907
-7.3025851 2.7552352 -1.4338409
-7.7668724 2.4828174 -1.4301407
-12.225765 5.3574953 -1.2545384
-12.909257 5.1700072 -1.2362731
-13.665429 4.8094149 -1.2185884
-14.340011 4.4786825 -1.188054
-10.725808 3.9359195 -1.3246737
-11.180429 3.6839499 -1.2958964
-15.29803 4.1398153 -1.1643833
-16.155487 3.753469 -1.1408058
-11.696141 3.3252373 -1.2845097
-12.193456 3.0164177 -1.2595384
-20.616673 9.0529776 -0.65731823
-26.849035 10.630875 -0.72122097
-14.512753 6.6093082 -0.95972842
-17.43808 7.2077217 -1.0686271
-29.401522 10.390227 -0.63545835
-33.424973 10.424092 -0.50510842
-18.674583 6.8855433 -1.0270599
-20.153416 6.6111965 -0.98230797
-36.805683 9.9941978 -0.39161777
-42.757519 9.9460907 -0.19222763
-21.673693 6.2204123 -0.9309355
-23.427017 5.7888179 -0.87350392
-41.502758 17.125078 0.35296255
-3.7995305 1.8958013 -1.5229567
-3.9688323 1.7319559 -1.5273166
-8.1715593 2.0716143 -1.4041908
-8.7349205 1.7346443 -1.4030828
-4.1928082 1.4894331 -1.5285709
-4.3423247 1.2978364 -1.5156794
-1.4700744 0.54326236 -0.52945751
-1.5911208 0.5339548 -0.56124872
-4.5957565 1.0322642 -1.5223536
-4.7247429 0.82063413 -1.5130695
-1.6410142 0.38711509 -0.54653817
-1.7131808 0.35260469 -0.55784523
-5.3583279 2.6509192 -1.4907449
-5.5755262 2.4088321 -1.4771823
-4.3811784 2.2983439 -1.5044932
-4.631484 2.1373839 -1.5047088
-5.9043679 2.0992486 -1.4787058
-6.2220545 1.8628137 -1.4776521
-4.8590059 1.8402755 -1.4978656
-5.095633 1.6497537 -1.5005664
-6.518733 1.4957159 -1.4562171
-6.9050717 1.2156668 -1.454266
-5.3769832 1.3466045 -1.5009897
-5.5861397 1.0991836 -1.4901139
-8.5049601 4.1784945 -1.3822331
-8.8730078 3.8176863 -1.3710517
-6.6041603 3.4348304 -1.4580694
-6.8278136 3.1195025 -1.4369487
-9.5250397 3.4104722 -1.3607255
-10.194694 3.0660698 -1.3303534
-7.2938914 2.7781727 -1.4338369
-7.7496796 2.5042272 -1.4282378
-12.194938 5.4126253 -1.2538733
-12.877375 5.2278109 -1.2354339
-13.612644 4.8629985 -1.2154289
-14.335838 4.5516067 -1.1897179
-10.696006 3.9822538 -1.3230615
-11.176123 3.7409801 -1.2976731
-15.278354 4.2118645 -1.1643739
-16.157022 3.8341336 -1.142424
-11.667005 3.3764338 -1.2827871
-12.179108 3.0738516 -1.2595307
-20.526333 9.1288624 -0.65530217
-26.826485 10.768418 -0.72217155
-14.432579 6.6550031 -0.95575833
-17.426022 7.2990379 -1.0702416
-29.361643 10.532039 -0.63571161
-33.400269 10.589314 -0.50561935
-18.632587 6.9699616 -1.0264267
-20.148575 6.7148991 -0.98386955
-36.733131 10.160568 -0.39118752
-42.749096 10.156674 -0.19256924
-21.647976 6.3236017 -0.93112499
-23.378164 5.8937984 -0.87250257
-32.440536 15.010364 0.11057629
-39.814056 16.649399 0.34735143
-3.8004835 1.9187845 -1.5273721
-3.9589159 1.7499105 -1.5265875
-8.165513 2.111105 -1.4049089
-8.7150555 1.773474 -1.4010209
-4.1910086 1.5111203 -1.5306935
-4.3361592 1.3182982 -1.5156758
-1.5168875 0.56961316 -0.55285442
-1.6183041 0.55106068 -0.57468492
-4.5835042 1.0521978 -1.5196644
-4.7338505 0.84515488 -1.5176678
-1.6373823 0.39440054 -0.5457629
-1.7296593 0.36422893 -0.56543368
-5.3543816 2.680505 -1.49339
-5.5658855 2.435858 -1.4776956
-4.3803215 2.3243601 -1.5083061
-4.6334515 2.1647694 -1.5090358
-5.8907723 2.1257327 -1.4776944
-6.218781 1.8937982 -1.4791062
-4.8378468 1.8583221 -1.4936193
-5.0987105 1.6772887 -1.5041033
-6.5097189 1.5259786 -1.4557453
-6.9050241 1.2492235 -1.4555986
-5.3705764 1.3719404 -1.5009855
-5.5808959 1.1255077 -1.4901097
-8.4798794 4.2158861 -1.3812722
-8.8531065 3.8586829 -1.3707354
-6.5844464 3.4640934 -1.4572204
-6.8130374 3.1516547 -1.4369434
-9.5107203 3.4560094 -1.3610131
-10.187716 3.1163845 -1.3314439
-7.2807183 2.8125243 -1.4338315
-7.7415276 2.5419421 -1.4289919
-12.183311 5.453362 -1.254524
-12.846149 5.2622414 -1.2337669
-13.625363 4.9159245 -1.2183763
-14.30629 4.591784 -1.1882243
-10.676025 4.0130372 -1.3219862
-11.173717 3.7792344 -1.2989424
-15.270799 4.2614608 -1.1648871
-16.150713 3.8862655 -1.1429054
-11.681086 3.4203777 -1.2859666
-12.180942 3.115031 -1.2609253
-20.211405 9.0645885 -0.64319909
-26.772135 10.844404 -0.72145081
-14.351956 6.672473 -0.95091093
-17.412199 7.3576198 -1.070911
-29.334049 10.626271 -0.63586211
-33.366833 10.694186 -0.505606
-18.638596 7.0390792 -1.0282826
-20.131163 6.7794342 -0.98408562
-36.727985 10.283477 -0.3916142
-42.769485 10.303529 -0.19304626
-21.595446 6.3819203 -0.92939568
-23.361465 5.9677062 -0.87258297
-33.518398 15.638059 0.10720132
-39.730225 16.76119 0.347258
-3.7960868 1.9315766 -1.5281057
-3.9568107 1.7638444 -1.5280356
-8.1588383 2.1367548 -1.4049048
-8.7075081 1.8004584 -1.4006741
-4.1739621 1.5197411 -1.5257291
-4.3212137 1.3286788 -1.5115174
-1.5048811 0.57033741 -0.54801142
-1.6060833 0.55273169 -0.56994009
-4.5893354 1.0687866 -1.5230188
-4.7274485 0.85937643 -1.5163499
-1.6414876 0.40094584 -0.54808056
-1.6958323 0.36319718 -0.55176872
-5.371706 2.7104585 -1.5013344
-5.5528913 2.4510243 -1.4761384
-4.3779988 2.3408256 -1.5102115
-4.6249008 2.1785228 -1.508414
-5.8822465 2.1435668 -1.4771876
-6.203516 1.9105172 -1.4766713
-4.8390779 1.8763105 -1.4960405
-5.084331 1.6903387 -1.5011493
-6.5105615 1.5478007 -1.4571427
-6.9087381 1.2723012 -1.4573784
-5.3514123 1.3849058 -1.4964074
-5.5792141 1.1434207 -1.490661
-8.47188 4.2451797 -1.3822221
-8.8481827 3.8896434 -1.3719709
-6.5959458 3.4967473 -1.4627007
-6.806654 3.1746924 -1.4377658
-9.514657 3.4913654 -1.3633624
-10.177874 3.148381 -1.3314389
-7.2663717 2.8332374 -1.432636
-7.7297702 2.5650327 -1.4282283
-12.178791 5.497364 -1.2560505
-12.836911 5.3056026 -1.234591
-13.607983 4.9580259 -1.2181729
-14.295585 4.6379318 -1.1885897
-10.65781 4.0444417 -1.3211786
-11.152394 3.8111393 -1.2976624
-15.257334 4.3094187 -1.1648804
-16.140362 3.9374588 -1.1430614
-11.666477 3.4559283 -1.2854712
-12.171094 3.1532886 -1.2609197
-19.873423 8.9876919 -0.63009477
-26.724977 10.923174 -0.72098804
-14.18835 6.6504316 -0.93931627
-17.389002 7.4122887 -1.0709031
-29.31554 10.723878 -0.6362834
-33.329269 10.797722 -0.50551099
-18.612663 7.0961747 -1.028026
-20.121113 6.8464923 -0.98475152
-36.685879 10.396072 -0.39144254
-42.754398 10.442093 -0.19319458
-21.573376 6.4491587 -0.92928547
-23.342606 6.041069 -0.87257361
-32.920918 15.484973 0.10886926
-42.029869 17.88533 0.3555463
-64.251228 24.538977 0.83732742
-3.7833991 1.9400707 -1.525157
-3.9427247 1.7725089 -1.5244052
-8.1368847 2.158303 -1.4020063
-8.7056646 1.8286103 -1.4013551
-4.1691647 1.5328559 -1.5257263
-4.3349657 1.347721 -1.5184405
-1.504778 0.57575291 -0.54881638
-1.6130592 0.56066293 -0.57389069
-4.5877843 1.0836511 -1.5236874
-4.7284422 0.87489974 -1.517662
-1.6223803 0.40141198 -0.54034704
-1.7364 0.37693682 -0.56922525
-5.3614459 2.7264478 -1.500801
-5.550467 2.4707987 -1.4776887
-4.3789458 2.3591146 -1.5133891
-4.6163101 2.1922441 -1.5077922
-5.8645983 2.1579905 -1.4741641
-6.1956263 1.9294358 -1.4761816
-4.8402429 1.8943249 -1.4984615
-5.0880661 1.7093093 -1.5040971
-6.4811096 1.5622376 -1.4510691
-6.8874454 1.2908404 -1.4533625
-5.347033 1.4017197 -1.4964043
-5.5605278 1.1578881 -1.4862225
-8.4426584 4.2637296 -1.3793533
-8.8449621 3.9214075 -1.3735163
-6.5814838 3.5156062 -1.461853
-6.798419 3.1968942 -1.438175
-9.4851074 3.5143278 -1.3604149
-10.173608 3.182106 -1.3322568
-7.2519689 2.8538885 -1.4314407
-7.7179432 2.5880754 -1.4274645
-12.158171 5.5571928 -1.2566987
-12.811768 5.3660455 -1.2345823
-13.578871 5.0200253 -1.2175734
-14.254646 4.6990557 -1.1867217
-10.649723 4.0989261 -1.3227761
-11.132435 3.8630157 -1.2974
-15.254084 4.3862591 -1.1664304
-16.133238 4.0163522 -1.1440282
-11.651959 3.5114529 -1.2857085
-12.146489 3.2081027 -1.2597452
-18.937325 8.6708508 -0.59218359
-24.956879 10.339926 -0.66107947
-13.908358 6.5988412 -0.919065
-17.342882 7.4894257 -1.0700788
-29.244072 10.854236 -0.63566953
-33.270424 10.952166 -0.50532824
-18.597624 7.1910324 -1.0292568
-20.088627 6.9412384 -0.98473912
-36.651859 10.573272 -0.39167345
-42.75518 10.655985 -0.19364548
-21.558033 6.555419 -0.93008208
-23.302282 6.1479583 -0.87202132
-32.221195 15.341167 0.11078314
-40.613262 17.509939 0.35087866
-59.104057 22.890774 0.78793621
-3.7791502 1.9604899 -1.5273629
-3.9360282 1.7918451 -1.5251273
-8.1266222 2.1966352 -1.4020007
-8.7046604 1.8712595 -1.4027202
-4.1671386 1.5544902 -1.5278491
-4.3196025 1.365374 -1.5149739
-1.5020453 0.58285344 -0.54881424
-1.6312995 0.57527959 -0.58337438
-4.5881114 1.1066271 -1.5256981
-4.7298369 0.89821279 -1.5196307
-1.6115605 0.40667698 -0.53647906
-1.7146674 0.38101789 -0.56087345
-5.3468266 2.7508075 -1.5002664
-5.5369959 2.4961548 -1.4771663
-4.3594761 2.3751614 -1.5102044
-4.6128006 2.2172468 -1.5102631
-5.8652267 2.1897213 -1.4771796
-6.1809082 1.9568903 -1.4747182
-4.8259568 1.9149928 -1.4966393
-5.0545907 1.7247696 -1.4958302
-6.490654 1.5970206 -1.4552668
-6.8927803 1.3254608 -1.4560325
-5.3366675 1.4259087 -1.4952564
-5.5644135 1.186051 -1.4889904
-8.4365196 4.3107018 -1.3818928
-8.8317976 3.9654691 -1.3744401
-6.5545411 3.5409856 -1.4593164
-6.7797379 3.2272394 -1.4373434
-9.4758415 3.5617995 -1.3615854
-10.171725 3.2341926 -1.3341701
-7.2493491 2.8924365 -1.433818
-7.7112446 2.6263099 -1.4285984
-12.133435 5.5920281 -1.2558171
-12.800347 5.4085879 -1.2351991
-13.564896 5.0633674 -1.2177639
-14.268167 4.753212 -1.1895034
-10.644174 4.1352587 -1.3238407
-11.125863 3.8999343 -1.2981595
-15.22684 4.4302497 -1.1652108
-16.108938 4.0641165 -1.1430448
-11.650357 3.5509632 -1.2869282
-12.14595 3.2487998 -1.2609065
-18.572681 8.5740976 -0.57784766
-23.811676 9.9545422 -0.62219399
-13.867778 6.6330118 -0.91744459
-17.322929 7.5454679 -1.0703418
-29.234158 10.955198 -0.63636178
-33.288998 11.074268 -0.50645715
-18.560076 7.2436066 -1.0282543
-20.085585 7.0108767 -0.98585457
-36.597343 10.682191 -0.39131275
-42.733128 10.793183 -0.19373889
-21.527788 6.620173 -0.92956704
-23.32147 6.2314115 -0.87380761
-31.199514 14.97432 0.11374294
-41.161625 17.899475 0.35302576
-58.575584 22.897766 0.78347117
-3.7631128 1.9671381 -1.5229411
-3.9269793 1.8026782 -1.5236732
-8.1367407 2.2268882 -1.4052526
-8.6987371 1.8986059 -1.402716
-4.1587386 1.5662464 -1.5264286
-4.3278236 1.3828712 -1.519819
-3.5748003 1.4370565 -1.537215
-1.6329613 0.58159095 -0.58495349
-4.5736442 1.1183022 -1.5216665
-4.7214193 0.91203386 -1.5176556
-1.628071 0.41658771 -0.54420894
-1.726136 0.38907078 -0.566185
-5.3330307 2.7649176 -1.4986738
-5.5396972 2.5182965 -1.4802706
-4.3569632 2.3916171 -1.5121098
-4.5955143 2.2268169 -1.5065476
-5.8528914 2.2060773 -1.4756662
-6.1802778 1.9780593 -1.4761735
-4.8216805 1.9308717 -1.4972421
-5.0618124 1.7449462 -1.4999584
-6.4856029 1.6174134 -1.4552633
-6.8809204 1.3456504 -1.4542457
-5.3321595 1.4426773 -1.4952532
-5.5568976 1.2027409 -1.4878784
-8.4054022 4.3281097 -1.3787059
-8.815691 3.991585 -1.3738155
-6.5399547 3.5596895 -1.4584688
-6.7607274 3.2443314 -1.4352735
-9.4738436 3.5950918 -1.3630519
-10.153963 3.2637348 -1.333068
-7.2402244 2.9152064 -1.4338139
-7.6955171 2.6480007 -1.427075
-12.105002 5.6250749 -1.2544973
-12.764979 5.4410129 -1.2331166
-13.550783 5.1066637 -1.2179544
-14.256943 4.7992773 -1.1898687
-10.623755 4.1657715 -1.3227655
-11.115427 3.935529 -1.298409
-15.226221 4.4820237 -1.166417
-16.092226 4.1137214 -1.1427122
-11.644831 3.5893145 -1.2876577
-12.131845 3.2859135 -1.2604343
-18.480465 8.6019602 -0.57506597
-23.603394 9.9549074 -0.61599463
-13.784038 6.6461267 -0.91230404
-16.787289 7.3758678 -1.0323976
-29.208948 11.050519 -0.6366204
-33.235085 11.172423 -0.5060358
-18.529802 7.2989392 -1.0277488
-20.072882 7.0772476 -0.98640788
-36.596207 10.806745 -0.39183372
-42.67382 10.920928 -0.19348547
-21.524046 6.6931243 -0.93046868
-23.292133 6.302043 -0.87334919
-30.734787 14.869869 0.11502207
-37.908272 16.628836 0.34174442
-55.969948 22.080967 0.75854015
-3.7634737 1.9824631 -1.5258843
-3.9314725 1.8196474 -1.5280236
-8.1297026 2.2524447 -1.4052484
-8.6831026 1.9238268 -1.4009984
-4.1607733 1.5820094 -1.529261
-4.3127227 1.3930725 -1.5156608
-3.5821054 1.45318 -1.5428602
-1.6328614 0.58732283 -0.58574206
-4.5554976 1.1289697 -1.516292
-4.7240953 0.92793143 -1.5196249
-1.6303079 0.42268923 -0.54575336
-1.7230926 0.39411625 -0.56542408
-5.3379622 2.7888651 -1.5029089
-5.5194402 2.5301156 -1.4766414
-4.3527369 2.4071529 -1.513379
-4.5850677 2.2396002 -1.5053071
-5.8567686 2.2286341 -1.4786826
-6.1795769 1.9992408 -1.4776287
-4.8191166 1.9474627 -1.4984511
-5.0544963 1.7602282 -1.499365
-6.4880219 1.6397214 -1.4571275
-6.8843117 1.3687587 -1.4560254
-5.3460593 1.4645764 -1.5009688
-5.5568476 1.2210069 -1.4889841
-8.2604952 4.2859535 -1.3548337
-8.808506 4.0217113 -1.3747406
-6.5253167 3.5783329 -1.457621
-6.7646184 3.2723272 -1.4385749
-9.4440441 3.6177197 -1.3601042
-10.147429 3.2968366 -1.3336115
-7.2364697 2.9401741 -1.4350011
-7.6945872 2.6747239 -1.4285902
-12.083672 5.6613879 -1.2540535
-12.760624 5.486568 -1.2345637
-13.53653 5.1499243 -1.2181449
-14.241794 4.8440475 -1.1898623
-10.616138 4.2013321 -1.3235626
-11.093658 3.9671173 -1.2971289
-15.210155 4.5292678 -1.166237
-16.07922 4.1642604 -1.1427054
-11.631602 3.6252911 -1.2874072
-12.125295 3.325058 -1.2608954
-18.402721 8.6361437 -0.57290065
-23.17819 9.8619537 -0.60218817
-13.813281 6.7138963 -0.91640431
-15.860402 7.0297637 -0.9653244
-29.140482 11.129358 -0.63563275
-33.211185 11.280623 -0.50626701
-18.495659 7.3526816 -1.0269948
-20.044907 7.1382737 -0.98606211
-42.658669 11.059937 -0.19365183
-21.491482 6.7571044 -0.9298526
-23.295349 6.381495 -0.87441719
-30.179377 14.71788 0.11657902
-37.521042 16.599979 0.34057549
-54.20232 21.579813 0.74181575
-3.7604992 1.9960483 -1.5273545
-3.9274285 1.8327767 -1.5287465
-8.115015 2.2758338 -1.4037973
-8.6731653 1.9502503 -1.4003085
-4.1592655 1.5964423 -1.5306758
-4.3101096 1.4071953 -1.5163505
-3.5707633 1.4616197 -1.5396303
-3.758029 1.327696 -1.5540888
-4.5592246 1.1451596 -1.518975
-4.7211542 0.94277716 -1.5196221
-1.6183078 0.42484891 -0.54111254
-1.7091825 0.39680108 -0.56010878
-5.3155503 2.7983875 -1.4986668
-5.5132194 2.548254 -1.4771559
-4.3401957 2.4180319 -1.5114676
-4.5728745 2.2515099 -1.5034478
-5.8425188 2.2442262 -1.4766659
-6.1714163 2.0180576 -1.4771389
-4.8024035 1.9582334 -1.4948118
-5.0489388 1.7761077 -1.4993618
-6.4828358 1.660104 -1.4571239
-6.8799753 1.3903879 -1.4560217
-5.3322077 1.4787706 -1.4981064
-5.5529814 1.2384669 -1.4889809
-8.067008 4.2171874 -1.3220512
-8.7886372 4.0460873 -1.3734956
-6.5225816 3.6035781 -1.4597263
-6.7490172 3.2910168 -1.4373313
-9.4473772 3.6531215 -1.3624536
-10.148322 3.3323855 -1.3352523
-7.2181382 2.9591553 -1.4330114
-7.684289 2.698247 -1.4282062
-11.769717 5.5814462 -1.2190158
-12.741928 5.5498128 -1.2353854
-13.515823 5.215106 -1.2185298
-14.228224 4.9143481 -1.1907824
-10.592546 4.2498393 -1.3230203
-11.089771 4.0247412 -1.2991607
-15.161959 4.5927739 -1.1638017
-16.055561 4.2389822 -1.1423701
-11.610606 3.6788669 -1.2869096
-12.115232 3.3837612 -1.2615876
-17.706919 8.4106941 -0.54492807
-22.563974 9.7271795 -0.58225346
-13.674188 6.7259302 -0.9075942
-15.417214 6.9212227 -0.93482983
-29.126854 11.28175 -0.63675284
-33.176567 11.443505 -0.50665528
-18.481157 7.4479971 -1.0283499
-20.011044 7.2326584 -0.98604959
-36.523602 11.097902 -0.39201856
-42.5732 11.252163 -0.19331755
-21.476521 6.8638015 -0.93075019
-23.278496 6.4949479 -0.87503195
-30.539965 15.072676 0.11528984
-37.122902 16.633703 0.33946532
-51.511509 20.788965 0.71626818
-3.7412503 2.0084288 -1.5229319
-3.9153655 1.8497076 -1.5272917
-8.1060877 2.3146079 -1.4041533
-8.683094 1.9954675 -1.4037297
-4.1551719 1.6174152 -1.5320896
-4.3034286 1.4275053 -1.5163468
-3.5672059 1.4798695 -1.5412406
-3.7517283 1.3454053 -1.5540855
-4.5592422 1.1680781 -1.5209856
-4.7036877 0.96245021 -1.5150163
-1.6340295 0.43752056 -0.54884201
-1.7325847 0.41045976 -0.57073337
-5.2887149 2.8161128 -1.4944234
-5.4993954 2.5734093 -1.4766334
-4.3155713 2.4309628 -1.5063744
-4.5724535 2.2780819 -1.5071561
-5.8318768 2.2717469 -1.4766612
-6.1765852 2.0519624 -1.4810241
-4.7860885 1.9779115 -1.4923836
-5.0459199 1.8017948 -1.5011284
-6.4636607 1.6876587 -1.4543176
-6.8714337 1.4224186 -1.4555712
-5.3288622 1.5049541 -1.499246
-5.5527086 1.2658896 -1.49064
-7.8431106 4.1466298 -1.2848122
-8.7658873 4.0858097 -1.3728693
-6.4987125 3.6304524 -1.4580336
-6.7299166 3.3210783 -1.4364997
-9.4410973 3.7019722 -1.3642125
-10.132504 3.3801825 -1.3352454
-7.1986899 2.9908767 -1.4318148
-7.6566734 2.7292161 -1.4251626
-11.329226 5.4152441 -1.1673422
-12.731722 5.5930061 -1.2362096
-13.50308 5.2589965 -1.2189171
-14.208953 4.9577222 -1.1904042
-10.584647 4.2853456 -1.3238174
-11.07148 4.0575314 -1.2983906
-15.137934 4.6374536 -1.1629285
-16.047943 4.2909389 -1.1428514
-11.602769 3.7165487 -1.287394
-12.116018 3.4250281 -1.262982
-17.339941 8.3027239 -0.53036201
-22.371914 9.728054 -0.57657045
-13.299437 6.5928683 -0.87854588
-15.40995 6.9761858 -0.93590635
-29.115471 11.382679 -0.63744497
-33.157459 11.553579 -0.50700891
-18.442888 7.4999881 -1.0273474
-19.990101 7.2961726 -0.98615313
-36.526783 11.224356 -0.39263386
-42.537643 11.385842 -0.19330131
-21.44725 6.9287734 -0.93033636
-23.275286 6.5729141 -0.87583035
-31.092131 15.467382 0.11347714
-37.141575 16.782309 0.33973387
-49.920006 20.328463 0.70118988
-3.7381816 2.0219703 -1.5244021
-3.9044709 1.8596364 -1.5251123
-8.1195431 2.3461378 -1.4081289
-8.6863823 2.0249512 -1.4054388
-4.1448574 1.6283902 -1.5299605
-4.29179 1.4386841 -1.5135736
-3.5574863 1.4889265 -1.5388175
-3.7544074 1.3596498 -1.5572448
-4.5610108 1.1838537 -1.5229971
-4.7098961 0.97910255 -1.5183007
-1.6290983 0.44164419 -0.54729384
-1.7150346 0.41226465 -0.56390005
-5.3035798 2.8455837 -1.5018377
-5.4790263 2.5849679 -1.4730043
-4.3342233 2.4596195 -1.5165493
-4.5618644 2.290756 -1.5059155
-5.8229113 2.2893503 -1.4761544
-6.1793146 2.0744138 -1.4834517
-4.7903838 1.9973979 -1.4960167
-5.0312281 1.8144513 -1.4981743
-6.4752288 1.7125031 -1.4585164
-6.8707476 1.4447945 -1.456459
-5.3222651 1.5211616 -1.4986709
-5.5449533 1.282488 -1.4895281
-7.6438527 4.0714102 -1.2507571
-8.7601681 4.1166759 -1.3741044
-6.488975 3.6518233 -1.4584515
-6.7124286 3.3387523 -1.4348432
-9.4202318 3.7279589 -1.3627363
-10.121836 3.4120042 -1.3352404
-7.1946726 3.0157754 -1.433002
-7.662858 2.7585359 -1.4281964
-10.982943 5.2913842 -1.1270533
-12.71227 5.6321759 -1.2359957
-13.488344 5.302124 -1.2191077
-14.212102 5.0089231 -1.1922565
-10.565635 4.3163199 -1.3230096
-11.062402 4.0936642 -1.298895
-15.132803 4.6879511 -1.1637882
-16.011286 4.3351197 -1.1408913
-11.59481 3.7542148 -1.2878788
-12.110929 3.464704 -1.2636763
-17.182468 8.2935705 -0.52473104
-22.218533 9.744628 -0.57224125
-13.300054 6.6453509 -0.88029915
-15.328013 6.9973154 -0.93142802
-29.090729 11.478493 -0.63775766
-33.136097 11.662972 -0.50732166
-18.439543 7.5662494 -1.0287061
-19.959585 7.3561802 -0.98569477
-36.498985 11.341413 -0.39274532
-42.503601 11.519924 -0.19330326
-21.421585 6.9948688 -0.93012488
-23.273743 6.6514654 -0.8767187
-34.408722 17.255297 0.10322689
-38.803619 17.678886 0.34585217
-48.028599 19.733368 0.68310511
-3.7366922 2.0364099 -1.5266086
-3.9019778 1.8734938 -1.5265604
-8.1064739 2.3699667 -1.407039
-8.6511917 2.045521 -1.4002942
-4.1431894 1.6428099 -1.5313752
-4.2943702 1.4545336 -1.5163411
-3.5578334 1.502272 -1.5412353
-3.7414675 1.3683504 -1.5532897
-4.5427113 1.1942747 -1.5176225
-4.7067947 0.99390227 -1.5182978
-1.6312425 0.44779912 -0.54883826
-1.7317699 0.42176884 -0.57148868
-5.286149 2.8576188 -1.4991851
-5.4778695 2.6054623 -1.4750726
-4.3133421 2.4656401 -1.5114573
-4.5512404 2.303385 -1.5046749
-5.8138928 2.3069186 -1.4756476
-6.1580486 2.0888991 -1.4795583
-4.7858367 2.0131927 -1.4966196
-5.0183058 1.8276768 -1.4958103
-6.4660616 1.7318233 -1.457579
-6.8699899 1.4671787 -1.4573472
-5.3266516 1.5405855 -1.5015272
-5.5334034 1.2981884 -1.4873072
-7.4851022 4.0165668 -1.2240217
-8.7471924 4.1441808 -1.3740996
-6.3874998 3.6208026 -1.4360889
-6.7176785 3.3676653 -1.4385575
-9.4029665 3.7553239 -1.3618486
-10.099805 3.4399862 -1.3335897
-7.1833587 3.0376 -1.4326009
-7.6504569 2.7812715 -1.4274327
-10.754381 5.2433591 -1.1020875
-12.680138 5.6895995 -1.2353642
-13.465055 5.3663797 -1.2192956
-14.171452 5.0698452 -1.1905742
-10.543346 4.3653121 -1.3227348
-11.03927 4.1443768 -1.2983778
-15.127639 4.7646365 -1.1653382
-15.996444 4.4121146 -1.1413697
-11.567566 3.8057041 -1.286646
-12.083016 3.5184422 -1.2622684
-17.042698 8.3252068 -0.52040619
-20.792416 9.2381067 -0.52355689
-13.160096 6.6528916 -0.87134284
-15.14442 7.0002379 -0.92017275
-29.04188 11.61769 -0.6379022
-33.097721 11.825042 -0.50766897
-18.418417 7.6592193 -1.0296885
-19.928438 7.4515581 -0.9859069
-36.462288 11.518722 -0.39300728
-42.444984 11.719029 -0.19324268
-21.409229 7.1026883 -0.9312247
-23.230625 6.7577405 -0.87616616
-34.036404 17.269562 0.10413732
-36.767021 16.962215 0.33891129
-46.670639 19.432276 0.67058069
-3.7286754 2.0549185 -1.5273416
-3.8964665 1.8934845 -1.5280079
-8.0839119 2.4047573 -1.4048629
-8.6548729 2.0894766 -1.4026873
-4.1215487 1.6566746 -1.525701
-4.2927999 1.4765688 -1.5184152
-3.5523899 1.5197675 -1.5420387
-3.7418818 1.3884919 -1.5564481
-4.5497503 1.2191651 -1.5223188
-4.6909657 1.0137545 -1.5143495
-1.6344175 0.45706627 -0.55115557
-1.7135398 0.42616713 -0.56465495
-5.2928839 2.8936963 -1.5055386
-5.4637852 2.6304321 -1.4745501
-4.3033099 2.4869111 -1.5120895
-4.5386362 2.3239646 -1.5040522
-5.8065405 2.3357637 -1.4766496
-6.1389494 2.1147888 -1.4771224
-4.7815437 2.0380054 -1.4984336
-5.0186143 1.8545865 -1.4987571
-6.461575 1.7633276 -1.458508
-6.8687162 1.5007778 -1.4586798
-5.3248382 1.5673332 -1.5032384
-5.5421882 1.327776 -1.4917382
-7.4314356 4.0328741 -1.2176512
-8.7347021 4.188767 -1.3753335
-6.2569351 3.5853722 -1.4078192
-6.698235 3.3975413 -1.4377259
-9.3998194 3.8055816 -1.3641961
-10.104094 3.4946263 -1.3366001
-7.1707625 3.0722094 -1.4329925
-7.6427984 2.8193276 -1.4285666
-10.746768 5.2815256 -1.1031765
-12.667643 5.7318578 -1.2359806
-13.444441 5.4071651 -1.2188953
-14.157329 5.1150155 -1.1907535
-10.527753 4.3976493 -1.3224621
-11.035478 4.1825342 -1.2996466
-15.146751 4.8230734 -1.1684501
-15.980583 4.4618134 -1.1412001
-11.559319 3.8432891 -1.2871305
-12.098594 3.5641882 -1.2655294
-16.978836 8.3601179 -0.51878053
-20.641006 9.2487612 -0.51922834
-13.082311 6.6651354 -0.86664271
-14.847231 6.9201102 -0.89957225
-28.997831 11.705861 -0.63767302
-33.073586 11.933691 -0.50794083
-18.385067 7.713171 -1.0290586
-19.927364 7.5225611 -0.98724717
-36.422119 11.631981 -0.39292979
-42.37907 11.844239 -0.19295254
-21.39817 7.1737299 -0.93182266
-23.203531 6.8289957 -0.87588722
-33.919685 17.344484 0.10434323
-39.78281 18.502783 0.34989122
-47.886898 20.11615 0.68330061
-3.7140977 2.0620718 -1.5236564
-3.897213 1.9089618 -1.5309074
-8.0763159 2.4301476 -1.4048587
-8.646347 2.1161988 -1.4023403
-4.1197805 1.6710479 -1.5271157
-4.284586 1.4888455 -1.5170271
-3.5459206 1.5301932 -1.5412292
-3.7374995 1.4002489 -1.5564455
-4.5495272 1.2344667 -1.523659
-4.6914501 1.0292838 -1.5156615
-1.6206003 0.45850939 -0.54574168
-1.7319996 0.43623316 -0.57300276
-5.2652245 2.9000077 -1.4997067
-5.4554935 2.6475916 -1.4745467
-4.2971087 2.5013881 -1.5127224
-4.5465651 2.3459868 -1.5096174
-5.7973819 2.3532665 -1.4761428
-6.1396146 2.1365914 -1.4790639
-4.768127 2.0499806 -1.4960064
-5.0271115 1.8756229 -1.5034754
-6.4634919 1.7857249 -1.4603722
-6.8544402 1.5202808 -1.456447
-5.3107147 1.5812857 -1.5003759
-5.5398574 1.345633 -1.4922894
-7.4239173 4.0590634 -1.2186015
-8.716156 4.2136273 -1.3743986
-6.1239681 3.5342417 -1.3774415
-6.6892738 3.4194579 -1.438135
-9.3786697 3.8313351 -1.3627199
-10.100552 3.5289509 -1.3376921
-7.1700592 3.0986443 -1.434974
-7.6302176 2.8419719 -1.427803
-10.73546 5.317925 -1.1038277
-12.631461 5.7634101 -1.2338984
-13.412643 5.4433665 -1.2173136
-14.152422 5.1635461 -1.1918621
-10.506585 4.4276137 -1.3213867
-11.031554 4.2207112 -1.3009155
-15.123941 4.8681841 -1.1677502
-15.974162 4.5141544 -1.141844
-11.554707 3.8821344 -1.2881049
-12.075907 3.5988059 -1.2641239
-16.884502 8.37957 -0.5158456
-20.566286 9.2930393 -0.51760745
-12.954933 6.6513658 -0.85783577
-14.482019 6.8060575 -0.87382376
-27.898468 11.363146 -0.60656053
-33.047207 12.041628 -0.50817186
-18.38463 7.7810364 -1.0306658
-19.896168 7.5822945 -0.98678863
-36.404423 11.752495 -0.39323008
-42.395546 11.992517 -0.19344714
-21.386875 7.2447772 -0.93242055
-23.193453 6.9052658 -0.87641621
-33.913025 17.475719 0.1042113
-36.572792 17.15217 0.33863211
-49.45277 20.957853 0.6995405
-3.7075994 2.0737395 -1.5236535
-3.8844891 1.9179473 -1.5280021
-8.0667591 2.4549367 -1.4044926
-8.6568813 2.147577 -1.4054201
-4.1231427 1.687582 -1.5306569
-4.2958517 1.5078057 -1.5232573
-3.529381 1.5361482 -1.5355787
-3.7382481 1.4139081 -1.5588142
-4.541996 1.2477452 -1.5223131
-4.7011132 1.0468287 -1.5202605
-1.6209143 0.46414289 -0.54651296
-1.7018247 0.43479234 -0.56085598
-5.2611351 2.9193714 -1.5012929
-5.457581 2.6697724 -1.4776508
-4.29249 2.5168195 -1.5139917
-4.5442472 2.3628726 -1.5114704
-5.7845936 2.3692539 -1.4746292
-6.1365342 2.1571486 -1.4800326
-4.7599154 2.0641921 -1.4953971
-5.0086508 1.8867639 -1.4993409
-6.4466224 1.802845 -1.4575671
-6.8610511 1.5443408 -1.4591182
-5.296555 1.595166 -1.4975132
-5.5299964 1.3616871 -1.4906231
-7.4163079 4.0852461 -1.2195517
-8.6922016 4.2358336 -1.3725334
-6.0166864 3.497138 -1.3533919
-6.6680398 3.4351256 -1.435652
-9.3629313 3.8592701 -1.3621265
-10.078195 3.5567446 -1.3360412
-7.1620827 3.1219511 -1.435367
-7.6230903 2.8666213 -1.4281784
-10.644591 5.3353748 -1.0957196
-12.633079 5.8361735 -1.2372112
-13.375807 5.5019627 -1.2161232
-14.127931 5.2301931 -1.1918529
-10.483781 4.4763064 -1.3211119
-11.002287 4.2690959 -1.2996336
-15.08001 4.9325657 -1.1658345
-15.939297 4.585557 -1.1406947
-11.545669 3.939779 -1.2893223
-12.068323 3.6585462 -1.2652826
-16.844826 8.4590549 -0.51583409
-20.520445 9.3890324 -0.51752961
-12.907528 6.7040524 -0.85650653
-14.341583 6.8229904 -0.86568493
-26.000937 10.731641 -0.55247128
-33.008862 12.204152 -0.50855982
-18.349594 7.8683858 -1.0307781
-19.854626 7.6738267 -0.98643875
-36.341042 11.921424 -0.39308271
-42.34433 12.193828 -0.19347762
-21.373268 7.3526607 -0.93352032
-23.143442 7.0093012 -0.8755942
-33.894123 17.668665 0.10403719
-43.126171 20.468578 0.36244953
-51.041969 21.916561 0.71641481
-3.6961706 2.0902796 -1.5229135
-3.8703885 1.93378 -1.525822
-8.0738716 2.4988089 -1.4081049
-8.6313686 2.1845405 -1.4026729
-4.1168656 1.7077349 -1.5313622
-4.2869258 1.527429 -1.522561
-3.532119 1.5572723 -1.5404165
-3.7229428 1.4282928 -1.5548586
-4.5306292 1.2675989 -1.5202953
-4.6905932 1.067759 -1.5182846
-1.6116544 0.46962315 -0.54341823
-1.7087413 0.44501913 -0.56464905
-5.2338929 2.936543 -1.4970496
-5.4501429 2.6980236 -1.4792
-4.283833 2.5389841 -1.51526
-4.5330596 2.3842762 -1.5114664
-5.7662244 2.3935058 -1.4726113
-6.1171508 2.1828361 -1.4775968
-4.7501335 2.0866156 -1.495393
-5.0032792 1.9117072 -1.5005175
-6.4436584 1.8348378 -1.4589632
-6.8460875 1.5749511 -1.4573302
-5.3036165 1.6246798 -1.5020843
-5.5141864 1.3854494 -1.4878467
-7.3694186 4.1047125 -1.2144543
-8.6792421 4.2802372 -1.3737674
-5.8756609 3.4517446 -1.3221697
-6.6674242 3.4746068 -1.4393651
-9.3482876 3.904897 -1.3627083
-10.065055 3.6055377 -1.336583
-7.1329637 3.1493032 -1.4321846
-7.6076584 2.9018333 -1.4277933
-10.565738 5.3372917 -1.0880516
-12.584002 5.8616176 -1.2336758
-13.3805 5.5531511 -1.2184796
-14.105832 5.2724705 -1.1912887
-10.475122 4.5115881 -1.3219088
-10.988821 4.3036442 -1.2996281
-15.085239 4.9868283 -1.1677338
-15.926727 4.6361628 -1.1408507
-11.53136 3.9753835 -1.2890716
-12.052969 3.6952882 -1.2648104
-16.778967 8.4920254 -0.51413143
-20.459978 9.4392519 -0.51642424
-12.849326 6.7250853 -0.8534199
-14.163422 6.7932119 -0.85389137
-25.817657 10.750879 -0.54807132
-32.977852 12.310568 -0.50870913
-18.231394 7.8854613 -1.0244316
-19.860197 7.7477326 -0.98822832
-36.295826 12.032993 -0.39294204
-42.330791 12.334034 -0.19369836
-21.338751 7.4158192 -0.93290412
-23.094553 7.0738068 -0.87432766
-43.095959 20.620319 0.3625913
-50.482975 21.864342 0.71154207
-3.700856 2.1083968 -1.5280659
-3.8642926 1.9459382 -1.5258192
-8.0791092 2.5283179 -1.410633
-8.6301918 2.2131021 -1.4036965
-4.1045938 1.7177422 -1.5285242
-4.2714887 1.5371491 -1.5184029
-3.5188701 1.564599 -1.5363796
-3.7235885 1.4419458 -1.5572273
-4.5338616 1.283926 -1.5229781
-4.6835265 1.081668 -1.5169667
-1.6013616 0.47195467 -0.53955054
-1.6857786 0.44505796 -0.55553854
-5.2397165 2.9615805 -1.5018147
-5.4433722 2.7159948 -1.4797146
-4.2596006 2.54264 -1.5088955
-4.5204902 2.395869 -1.5096071
-5.7622395 2.4131258 -1.4736145
-6.1102614 2.2020495 -1.4775932
-4.7400761 2.0999756 -1.4941779
-5.0097523 1.9321742 -1.5046456
-6.4341278 1.8539879 -1.4580257
-6.8449049 1.5973288 -1.4582181
-5.3021412 1.6424918 -1.5032247
-5.4986176 1.3999813 -1.4845172
-7.335856 4.1161952 -1.2106313
-8.6675234 4.308362 -1.3740722
-5.7640486 3.4101021 -1.2968546
-6.6547394 3.4946389 -1.4389479
-9.3214045 3.9280694 -1.3603493
-10.055542 3.6378129 -1.3368523
-7.1176701 3.1692939 -1.4309893
-7.5985026 2.925725 -1.4277891
-10.428573 5.308888 -1.0731591
-12.145611 5.7049403 -1.1852986
-13.377663 5.6013422 -1.2200483
-14.096653 5.3195658 -1.1920255
-10.489956 4.5571814 -1.3261831
-10.980783 4.3403273 -1.3003873
-15.088385 5.0405455 -1.1694596
-15.913997 4.6867433 -1.1410064
-11.524431 4.0135694 -1.289801
-12.037503 3.7319751 -1.2643381
-16.713066 8.5246754 -0.51242894
-18.796268 8.7458448 -0.45833671
-12.771728 6.735558 -0.84872001
-14.057504 6.7970057 -0.84751689
-25.06885 10.530859 -0.52703857
-32.989548 12.433114 -0.50979674
-17.387312 7.584105 -0.96874845
-19.809734 7.7998848 -0.98664576
-36.303337 12.162237 -0.39368293
-42.222759 12.446645 -0.19302498
-21.319113 7.4841528 -0.93309718
-23.079851 7.148685 -0.87467712
-43.086823 20.782511 0.36281097
-49.882664 21.790419 0.70624745
-3.6893899 2.1172199 -1.5258536
-3.8581579 1.9580791 -1.5258163
-8.0673771 2.5524981 -1.4099052
-8.6174698 2.2387435 -1.4026643
-4.1026125 1.7321131 -1.5299388
-4.2701702 1.5518316 -1.519785
-3.5222604 1.5794536 -1.5404111
-3.7224686 1.4549612 -1.5588053
-4.5316114 1.298702 -1.5236466
-4.6635308 1.0926012 -1.5110474
-1.6297801 0.48640183 -0.55269223
-1.702316 0.45486659 -0.56312722
-5.2270403 2.9761147 -1.5007515
-5.4400001 2.7356725 -1.4812649
-4.2596903 2.5609438 -1.512073
-4.5146213 2.4109557 -1.5102227
-5.7564077 2.4319868 -1.4741142
-6.1252203 2.2291143 -1.4834244
-4.7386622 2.117224 -1.4959929
-4.992949 1.9438078 -1.5011011
-6.4394579 1.8775097 -1.4608235
-6.8474464 1.6206017 -1.4599977
-5.2896471 1.6568263 -1.5009339
-5.5072303 1.4205571 -1.4883946
-7.3383322 4.1480198 -1.213491
-8.655714 4.3364596 -1.3743776
-5.7214637 3.4090741 -1.2888355
-6.6454597 3.5164466 -1.439357
-9.3071966 3.9565642 -1.36005
-10.031024 3.664669 -1.3349272
-7.1148186 3.1948826 -1.4325736
-7.5819416 2.9467704 -1.4262656
-10.41361 5.3425393 -1.0733725
-11.713734 5.5481067 -1.1375444
-13.347176 5.6379004 -1.2186636
-14.083598 5.3652382 -1.1923907
-10.466519 4.5861206 -1.3248402
-10.957871 4.3711524 -1.2991074
-15.080024 5.0904841 -1.1701459
-15.910662 4.7401109 -1.1419759
-11.502411 4.0464449 -1.2885704
-12.023821 3.7691858 -1.264099
-16.684429 8.5762215 -0.51234376
-18.538727 8.6973324 -0.45014158
-12.690673 6.7437253 -0.84372663
-14.009154 6.8280702 -0.84547776
-24.305134 10.2992 -0.50551891
-32.896122 12.516102 -0.50860006
-16.536182 7.273488 -0.91244459
-19.801844 7.8686929 -0.98764861
-36.289574 12.284564 -0.39407742
-42.208366 12.58662 -0.19324562
-21.28797 7.5484099 -0.93268317
-23.036301 7.2146077 -0.87367982
-40.626659 19.755117 0.35419962
-48.796608 21.498215 0.69607639
-3.6714869 2.1222305 -1.5206954
-3.8469915 1.9676846 -1.5236367
-8.0574455 2.5772309 -1.4095392
-8.6180201 2.2677932 -1.4040306
-4.1040149 1.7479711 -1.5327711
-4.2635064 1.5646117 -1.5190896
-3.5206044 1.5920498 -1.542022
-3.7093098 1.4633449 -1.5548505
-4.5166683 1.3097347 -1.5196152
-4.6674333 1.1089605 -1.513674
-1.6001163 0.48258689 -0.54031998
-1.7116354 0.46295866 -0.56767964
-5.2310171 3.0002594 -1.5049869
-5.4382858 2.7562191 -1.4833332
-4.2564745 2.5772922 -1.5139784
-4.503664 2.423351 -1.5089819
-5.7540712 2.4523642 -1.4756207
-6.1054196 2.2437224 -1.4800172
-4.7406559 2.1360645 -1.4990197
-4.9779053 1.9560429 -1.498147
-6.427937 1.896066 -1.4594193
-6.8328319 1.6398734 -1.457765
-5.2844133 1.6734438 -1.5009307
-5.4990158 1.436905 -1.4872828
-7.2841511 4.1474924 -1.2058492
-8.6455793 4.365407 -1.3749928
-5.7291245 3.4381726 -1.2934724
-6.6309185 3.5354848 -1.4385266
-9.2892723 3.9834371 -1.3591623
-10.023182 3.69753 -1.3354706
-7.1011796 3.2155967 -1.4317752
-7.5744767 2.9712925 -1.4266412
-10.368931 5.3814502 -1.0709567
-11.308603 5.4226089 -1.0937328
-13.311319 5.6968131 -1.21767
-14.065593 5.4344115 -1.1931249
-10.433931 4.6305556 -1.3232279
-10.940833 4.424232 -1.2996095
-15.067172 5.1653929 -1.1711757
-15.895782 4.8173432 -1.1426169
-11.494422 4.1046419 -1.2900325
-11.994561 3.8222208 -1.2626911
-14.958737 7.7757249 -0.43908879
-18.445139 8.7598057 -0.44825989
-12.700882 6.8261967 -0.84723753
-13.941003 6.8764291 -0.84275848
-24.076368 10.336163 -0.50019401
-32.859169 12.679599 -0.50906932
-16.306742 7.2641592 -0.89913648
-19.749723 7.9559746 -0.98673666
-36.219944 12.451526 -0.39386696
-42.091175 12.767995 -0.19267388
-21.255922 7.6500039 -0.9328723
-23.030619 7.3321462 -0.87501252
-40.477482 19.918999 0.35402444
-48.619904 21.694468 0.69535494
-3.6550438 2.1357346 -1.517746
-3.8426573 1.9883442 -1.5258098
-8.0601616 2.6200931 -1.4124275
-8.6072369 2.3083911 -1.4040247
-4.0923042 1.7658052 -1.5313498
-4.254323 1.5840563 -1.5183934
-3.5047665 1.6047755 -1.5379846
-3.7126341 1.4848469 -1.5595899
-4.519464 1.3337328 -1.5229685
-4.6786966 1.1348727 -1.5195869
-1.6241486 0.49864581 -0.55191505
-1.696894 0.46778399 -0.5623641
-5.2101612 3.0209937 -1.5028628
-5.4200673 2.7792087 -1.4817748
-4.2491188 2.6003294 -1.5158826
-4.4871669 2.4418616 -1.5071219
-5.7424493 2.4794662 -1.4756161
-6.0856748 2.2691314 -1.4775814
-4.7218847 2.1543984 -1.4959856
-4.9721894 1.9808897 -1.499323
-6.4300923 1.9297447 -1.4622159
-6.8326082 1.6738939 -1.4595432
-5.2928634 1.7037002 -1.5060735
-5.4977598 1.4642738 -1.4889417
-7.2354832 4.1649551 -1.2004335
-8.6161013 4.4016428 -1.373436
-5.7061872 3.461066 -1.2917799
-6.6210871 3.5703962 -1.4401739
-9.2685862 4.0263863 -1.3588614
-10.003789 3.7440438 -1.3351893
-7.084168 3.248215 -1.4313726
-7.5622163 3.0076852 -1.4270152
-10.274548 5.3733053 -1.0613185
-11.223384 5.4253669 -1.0858383
-13.293356 5.7386088 -1.2176634
-14.054022 5.4807382 -1.1936759
-10.40668 4.6576228 -1.3213502
-10.917687 4.4548621 -1.2983296
-15.054631 5.2140169 -1.1715152
-15.874848 4.8655181 -1.1421216
-11.477738 4.1393838 -1.289537
-11.999522 3.8653345 -1.2647854
-14.960771 7.8366337 -0.4402366
-18.421137 8.8194332 -0.44838008
-12.735449 6.8965573 -0.85192418
-13.847797 6.8847909 -0.83733249
-24.326197 10.534361 -0.50852638
-32.817318 12.782038 -0.50901473
-16.303856 7.3243809 -0.90049565
-19.735735 8.0224791 -0.98740208
-36.22031 12.579049 -0.39451316
-42.006863 12.886692 -0.19223763
-21.235537 7.7181129 -0.9330653
-23.003664 7.4032435 -0.87482321
-52.599468 23.670826 0.73607415
-3.6610911 2.1548347 -1.523635
-3.8247833 1.9944577 -1.5207282
-8.0518885 2.6454096 -1.4124233
-8.5980368 2.3349171 -1.4036776
-4.0798926 1.7756395 -1.5285118
-4.2528434 1.5987225 -1.5197755
-3.4997056 1.615788 -1.537982
-3.6959901 1.4917811 -1.5540537
-4.5152497 1.347934 -1.5229657
